# .PCD v0.7 - Point Cloud Data file format
VERSION 0.7
FIELDS x y z intensity
SIZE 4 4 4 4
TYPE F F F F
COUNT 1 1 1 1
WIDTH 1406
HEIGHT 1
VIEWPOINT 0 0 0 1 0 0 0
POINTS 1406
DATA ascii
-4.7404547 -4.8986411 0.10641279 0
3.5942056 -4.8952346 0.10600489 0
3.6414247 -4.8933048 0.12011006 0
8.0630388 -4.8850255 0.092849486 0
-9.636446 -4.6875696 0.093979672 0
-9.4968929 -4.6930456 0.12491021 0
-4.9053454 -4.7134247 0.10816006 0
-4.7409225 -4.6977544 0.10639796 0
3.5913272 -4.6780491 0.1029456 0
3.6342576 -4.6894293 0.11804443 0
8.0615549 -4.6967931 0.094821349 0
-9.6303816 -4.5136561 0.092641748 0
-9.5003099 -4.4994254 0.12689897 0
-4.8882575 -4.4956489 0.11600097 0
-4.7408533 -4.4981294 0.10938893 0
3.5989499 -4.4846482 0.10036953 0
3.6306756 -4.4970441 0.11304118 0
8.0615473 -4.4954653 0.1073226 0
-9.6293726 -4.3101649 0.090395734 0
-9.4937725 -4.299912 0.12735045 0
-4.9032874 -4.2904997 0.11359376 0
-4.7412486 -4.3001914 0.1075529 0
3.5946124 -4.2878256 0.097667605 0
3.6299062 -4.2985697 0.11222392 0
8.0590353 -4.2929673 0.10649072 0
-9.6372309 -4.0932493 0.096903615 0
-9.5016632 -4.1013746 0.12949923 0
-4.9041243 -4.115572 0.1159197 0
-4.741468 -4.1005321 0.1101023 0
3.5979571 -4.1088524 0.09533067 0
3.630568 -4.1044445 0.10994162 0
8.0660982 -4.1093335 0.10633209 0
-9.6317863 -3.9054346 0.09889967 0
-9.4997196 -3.9001076 0.13223772 0
-4.9091816 -3.9321332 0.11836657 0
-4.7404966 -3.8999457 0.10632126 0
3.5944712 -3.8752372 0.092260554 0
3.6431742 -3.8843081 0.1100767 0
8.0633602 -3.9024708 0.1055302 0
-9.6325417 -3.7027605 0.10118213 0
-9.5057468 -3.6768708 0.13345741 0
-4.9004555 -3.7094176 0.1215531 0
-4.7403045 -3.702589 0.10828682 0
3.5912094 -3.7622609 0.090785317 0
3.6938586 -3.7858498 0.093927532 0
8.0636473 -3.6885805 0.10431959 0
-9.6357937 -3.5102832 0.11518663 0
-9.4958849 -3.5060427 0.13247092 0
-4.9065852 -3.4899855 0.12460112 0
-4.7396493 -3.4999051 0.10758859 0
8.0597925 -3.500591 0.094531409 0
-9.6367455 -3.2989142 0.10608845 0
-9.4979496 -3.3191447 0.13637978 0
-4.8873234 -3.2633486 0.097047582 0
-4.7387424 -3.3026791 0.10763052 0
8.0624399 -3.3052919 0.10339747 0
-9.6298685 -3.1009116 0.093380958 0
-9.5046406 -3.1179211 0.14148851 0
-4.9065866 -3.0991802 0.13025793 0
-4.7383122 -3.1022851 0.10544481 0
8.0623903 -3.0883484 0.1024596 0
-9.6375446 -2.9191387 0.12294165 0
-9.5014639 -2.9082365 0.14076751 0
-4.9054565 -2.8771625 0.13353646 0
-4.7371173 -2.8982446 0.10960707 0
3.7523074 -2.8188422 0.10648547 0
3.9020114 -2.8198886 0.10729247 0
4.1090922 -2.8198233 0.1054932 0
4.2933049 -2.8200235 0.10472399 0
4.505414 -2.8238051 0.097512409 0
4.6965265 -2.824317 0.10153124 0
4.9012384 -2.8240921 0.094654612 0
5.0936365 -2.8225191 0.092382848 0
5.3022566 -2.8245678 0.1177353 0
5.4953437 -2.8261547 0.10042115 0
5.7064161 -2.8223283 0.11317476 0
5.9096932 -2.8313563 0.10372762 0
6.1076012 -2.8219042 0.087995388 0
6.2866559 -2.8303328 0.089270435 0
6.5022812 -2.8308361 0.11165937 0
6.710794 -2.8226795 0.092908271 0
6.8947916 -2.8303175 0.094223931 0
7.1054258 -2.8323689 0.094969153 0
7.3238707 -2.8181643 0.099169478 0
7.5278616 -2.8297863 0.099371441 0
7.7247019 -2.8346937 0.0992736 0
8.0648212 -2.9016092 0.10231246 0
-9.6313324 -2.698812 0.10895705 0
-9.487422 -2.6991825 0.13897611 0
-4.9042006 -2.7161422 0.13594121 0
-4.7351904 -2.7010226 0.11089079 0
3.7498648 -2.7077663 0.098655656 0
3.9019096 -2.6642399 0.09806975 0
4.09905 -2.6643424 0.099058159 0
4.3001075 -2.66554 0.10069989 0
4.4995623 -2.6662638 0.10444949 0
4.6981726 -2.6669106 0.10336497 0
4.8991213 -2.6678741 0.10098563 0
5.0986161 -2.6682701 0.098804027 0
5.299129 -2.6688867 0.10098512 0
5.5010004 -2.6693392 0.098153412 0
5.7034955 -2.6709738 0.095600724 0
5.9054937 -2.6717615 0.1045812 0
6.1024137 -2.6729484 0.10467132 0
6.3023987 -2.6742129 0.10478096 0
6.4975872 -2.6752827 0.1067913 0
6.6980214 -2.6741939 0.10260997 0
6.8953857 -2.6738801 0.10326509 0
7.0987473 -2.6747496 0.10362403 0
7.299562 -2.6747763 0.10235816 0
7.4987535 -2.6775632 0.097681575 0
7.6990876 -2.6769722 0.097287051 0
7.9055662 -2.6772687 0.096916646 0
8.0489569 -2.6624687 0.097984545 0
-9.637537 -2.4951565 0.12203011 0
-9.4885387 -2.4370852 0.12665862 0
-9.2862043 -2.408196 0.12182677 0
-9.0952568 -2.4108684 0.10694095 0
-8.8883085 -2.4121547 0.12187918 0
-8.679985 -2.4122922 0.11533366 0
-8.4988632 -2.409692 0.11764839 0
-8.3004141 -2.4089539 0.12246478 0
-8.0904427 -2.4094822 0.11707847 0
-7.8902721 -2.4151118 0.12004393 0
-7.6875725 -2.4123576 0.11586294 0
-7.5076299 -2.412195 0.11690443 0
-7.30686 -2.4107089 0.10803609 0
-7.1068769 -2.4080114 0.11408374 0
-6.9129934 -2.4166858 0.11165421 0
-6.7189546 -2.413419 0.11020327 0
-6.5192122 -2.417222 0.10881779 0
-6.3042798 -2.4115319 0.11492116 0
-6.1153092 -2.4200871 0.10967818 0
-5.8971105 -2.4105554 0.11236314 0
-5.6982718 -2.4149289 0.11282968 0
-5.4850354 -2.4114947 0.11213838 0
-5.2995443 -2.4112952 0.1172113 0
-5.0897465 -2.4129648 0.11396325 0
-4.9193058 -2.4284685 0.11538547 0
-4.7358274 -2.4966571 0.1082078 0
8.0598059 -2.5025721 0.097604409 0
-9.6309967 -2.2098899 0.087902725 0
-9.520093 -2.2703922 0.10121884 0
-9.2964897 -2.2700789 0.10174639 0
-9.0934687 -2.3154769 0.11349007 0
-8.9036875 -2.2430053 0.10248447 0
-8.694129 -2.2418089 0.11607803 0
-8.4990883 -2.2411487 0.11298347 0
-8.291935 -2.2283311 0.10539859 0
-8.1036148 -2.226876 0.11156387 0
-7.8962917 -2.2399297 0.10793191 0
-7.6896219 -2.2204583 0.10545754 0
-7.4968705 -2.226546 0.10326292 0
-7.3007288 -2.2469676 0.10681361 0
-7.0934682 -2.2426071 0.10222264 0
-6.9018879 -2.2447693 0.11169223 0
-6.6992927 -2.2387965 0.12393487 0
-6.4921637 -2.2443404 0.12413883 0
-6.2987351 -2.2347345 0.12261986 0
-6.0926719 -2.2443159 0.12569092 0
-5.8975201 -2.2309489 0.12537321 0
-5.701849 -2.2413113 0.12194064 0
-5.5016694 -2.241509 0.11412869 0
-5.2995911 -2.2458951 0.1154802 0
-5.1087356 -2.2532399 0.1163017 0
-4.9429207 -2.2589452 0.11493993 0
-4.7339492 -2.3001568 0.10926661 0
8.0615473 -2.2936499 0.096926875 0
-9.6304159 -2.1060479 0.088178478 0
-9.4524975 -2.1871986 0.10251039 0
-9.2930202 -2.1920438 0.088614129 0
-9.0974979 -2.1895871 0.097246684 0
-8.9169874 -2.1957045 0.11332241 0
-8.7096996 -2.1929033 0.10762341 0
-8.477026 -2.1955247 0.10294284 0
-8.3416405 -2.193084 0.08301641 0
-8.0919752 -2.1932325 0.082001008 0
-7.8915138 -2.1922274 0.081302613 0
-7.7119684 -2.1895177 0.089045532 0
-7.5237379 -2.1984739 0.080534823 0
-7.2544336 -2.1978233 0.095980369 0
-7.1699619 -2.196588 0.095707402 0
-6.8679686 -2.1969628 0.08019954 0
-4.8845458 -2.141367 0.095579691 0
-4.7345214 -2.1000793 0.10609454 0
8.0620022 -2.1008513 0.097495779 0
-9.6301165 -1.8955849 0.090790801 0
-4.8801947 -1.9049102 0.11411386 0
-4.7335391 -1.8996257 0.10955596 0
8.061904 -1.9018378 0.0955979 0
-9.6337442 -1.7096618 0.10318553 0
-4.8805122 -1.679472 0.12078834 0
-4.7330298 -1.7063217 0.10870204 0
8.0637674 -1.696759 0.097940914 0
-9.6265659 -1.5070823 0.099312566 0
-4.8785782 -1.5017296 0.13484663 0
-4.7322536 -1.4965048 0.10898446 0
8.0635023 -1.4970652 0.097390689 0
-9.6263151 -1.2977759 0.098061837 0
-4.8754034 -1.3095373 0.12419297 0
-4.731215 -1.2989743 0.10622738 0
8.064992 -1.2968727 0.09491466 0
-9.6255589 -1.0966327 0.094011396 0
-4.8723602 -1.1101208 0.11284193 0
-4.7315054 -1.1053592 0.10272311 0
8.0650005 -1.0990205 0.10124953 0
-9.6218834 -0.89267242 0.088765539 0
-4.8706632 -0.89731216 0.099280618 0
-4.7325416 -0.89195955 0.10348148 0
8.0671606 -0.90083039 0.10415705 0
-9.625598 -0.69694519 0.087646805 0
-4.8683453 -0.68743789 0.10136793 0
-4.7338905 -0.70260984 0.10877578 0
8.0681887 -0.69649738 0.10617452 0
-9.6197548 -0.50581825 0.082844317 0
-4.865952 -0.50070798 0.098925799 0
-4.7313495 -0.50590461 0.1119438 0
8.0693703 -0.50097817 0.098007657 0
-9.6212358 -0.29905871 0.091677167 0
-4.8656979 -0.30065313 0.10201945 0
-4.73177 -0.30352014 0.11060549 0
8.0720863 -0.29863474 0.10279323 0
-9.6171436 -0.090345912 0.09252958 0
-4.8629785 -0.094860032 0.098448917 0
-4.731164 -0.096301943 0.11360581 0
8.0688705 -0.11515528 0.10677192 0
-9.6157827 0.10455836 0.091128901 0
-4.8597145 0.10431997 0.099286407 0
-4.7311487 0.084707417 0.10629932 0
6.3834939 0.16416976 0.10859431 0
6.4682598 0.13796096 0.10654844 0
8.0636063 0.10288122 0.10667869 0
-9.6161604 0.29780361 0.088526137 0
-9.5999889 0.39810222 0.12741308 0
-4.8579559 0.305069 0.096945725 0
-4.7292109 0.31430513 0.11345733 0
6.3836355 0.29825732 0.098614357 0
6.4973459 0.32051158 0.10010214 0
8.0609121 0.29891393 0.1034786 0
-9.6140432 0.50274712 0.090478808 0
-9.5979767 0.51156807 0.079581372 0
-4.8570266 0.50614935 0.10674504 0
-4.7274961 0.4992176 0.1128294 0
6.3828058 0.50102943 0.10823885 0
6.5006766 0.50133902 0.096911602 0
8.0600843 0.50005841 0.1033214 0
-9.6124496 0.68184453 0.085546196 0
-9.5974064 0.74759066 0.074692048 0
-4.8440633 0.62031597 0.096049123 0
-4.7553358 0.62319946 0.10430004 0
6.384748 0.69955647 0.1137419 0
6.5056767 0.69796014 0.098490991 0
8.0548334 0.70205826 0.10276772 0
-9.6144266 0.88776851 0.078228667 0
-9.5935631 0.90757251 0.092938833 0
6.3834915 0.89450884 0.11651666 0
6.4897461 0.89019358 0.10536209 0
8.0595922 0.89194417 0.094861984 0
-9.6117439 1.1149335 0.076391354 0
-9.5967159 1.0887856 0.10419222 0
6.3868661 1.086532 0.1015127 0
6.4964528 1.118098 0.097627826 0
8.0716667 1.1043663 0.092224665 0
-9.6174555 1.30546 0.089193746 0
-9.5874357 1.3196334 0.099467501 0
6.3839564 1.2947856 0.10357329 0
6.5356274 1.2970868 0.091425188 0
8.0792646 1.2965949 0.097484216 0
-9.6196499 1.4972584 0.10342209 0
-9.5940351 1.5101784 0.08108864 0
6.3859792 1.4930665 0.10298778 0
6.5302711 1.5020325 0.097728178 0
8.0742922 1.4986448 0.094998717 0
-9.6137924 1.6792088 0.1006909 0
-9.5646772 1.6849699 0.078047998 0
-9.3026266 1.7306882 0.11380123 0
-9.0710583 1.7186648 0.10861175 0
-8.9110899 1.7313699 0.092084885 0
-8.6949387 1.7243675 0.092691101 0
-8.4773302 1.7196742 0.10468374 0
-8.289876 1.7219771 0.10046683 0
-8.0876274 1.7182605 0.10015971 0
-7.9039578 1.7178799 0.095347017 0
-7.7240572 1.715817 0.10234886 0
-7.4799957 1.7205174 0.098021008 0
-7.2893872 1.7179481 0.1039165 0
-7.0922818 1.7177902 0.10361629 0
-6.8906112 1.7162139 0.10676324 0
-6.6987777 1.7158334 0.1016486 0
-6.5068426 1.6986067 0.10742596 0
-6.3032637 1.6918826 0.10611352 0
-6.0860486 1.6907351 0.11173397 0
-5.8985505 1.6908451 0.10543101 0
-5.7021427 1.6895472 0.10461096 0
-5.5094047 1.6871918 0.10642614 0
-5.2958217 1.6850189 0.10691704 0
-5.0840325 1.6907603 0.10723042 0
-4.8908768 1.6997758 0.10408753 0
-4.7931905 1.7271128 0.10216357 0
3.7927334 1.7568532 0.096740283 0
3.8951089 1.7447486 0.11298534 0
4.1023035 1.7416297 0.10965859 0
4.2980671 1.7430654 0.1070854 0
4.4944592 1.7435746 0.10761096 0
4.6957307 1.7407991 0.10493404 0
4.9006 1.742959 0.10436292 0
5.0970383 1.7422415 0.10366029 0
5.3007126 1.7413297 0.099781998 0
5.5004444 1.7410464 0.10147616 0
5.695487 1.7432374 0.093877368 0
5.894094 1.745235 0.095908001 0
6.1008968 1.7383537 0.096551597 0
6.3180695 1.7205956 0.097154237 0
6.5258741 1.6947575 0.095822416 0
8.0666256 1.6975961 0.098851383 0
-4.8110991 1.8801974 0.11070994 0
-4.7941146 1.9102312 0.12166932 0
3.78269 1.9049152 0.11037687 0
3.8223627 1.8989564 0.12398803 0
5.7640085 1.8010726 0.13352749 0
5.9530673 1.8031138 0.12567161 0
6.1114435 1.8058757 0.094121434 0
6.3159618 1.8123373 0.095202163 0
6.5082655 1.8244964 0.097932972 0
8.0757322 1.8920791 0.099275306 0
-4.8101983 2.0822017 0.13753445 0
-4.7938137 2.0952106 0.11420473 0
3.7861435 2.1043758 0.13584603 0
3.8274505 2.100862 0.12023588 0
8.0738134 2.0961888 0.0933384 0
-4.8127871 2.2808838 0.13210753 0
-4.7921739 2.2938297 0.11221869 0
3.7837689 2.2933097 0.13126813 0
3.8267562 2.3138442 0.12103581 0
7.9985375 2.3326631 0.031133831 0
8.0558624 2.3003838 0.10144791 0
-4.8175607 2.5146549 0.13782734 0
-4.7922249 2.4989064 0.12807846 0
3.7784526 2.4941487 0.12177836 0
3.8258481 2.4898908 0.13339907 0
7.9969211 2.5239496 0.055144969 0
8.0527439 2.4924924 0.10393567 0
-4.8153896 2.7253122 0.11985436 0
-4.790874 2.7086868 0.13049902 0
3.7824965 2.6856906 0.14213517 0
3.8246717 2.695739 0.11697172 0
7.9954119 2.6866648 0.037618898 0
8.0556259 2.6944113 0.10001802 0
-4.8147478 2.9101677 0.14482732 0
-4.7892542 2.9168906 0.11990231 0
3.777807 2.902137 0.11545101 0
3.8279657 2.9031549 0.12682894 0
7.9970765 2.8800519 0.017259182 0
8.0539951 2.8997743 0.10334256 0
-4.8184958 3.0731099 0.13467441 0
-4.7886767 3.1024275 0.13255283 0
3.7848489 3.0929322 0.13742594 0
3.8364737 3.1102102 0.13364536 0
7.9989896 3.1088629 0.076718479 0
8.0582304 3.099788 0.094716735 0
-4.8182554 3.2884092 0.14721204 0
-4.7910175 3.3085799 0.13291936 0
3.7772064 3.2922897 0.1001593 0
3.8553209 3.2997887 0.11587525 0
7.9952984 3.3408709 0.10055341 0
8.0644255 3.3023553 0.099392548 0
-4.8118372 3.504988 0.14022537 0
-4.7849207 3.5103278 0.12566049 0
3.7765641 3.4732041 0.11737628 0
3.8500478 3.5036161 0.12604716 0
7.9918942 3.5038075 0.087450355 0
8.066061 3.4827774 0.11139804 0
-4.8176661 3.7183869 0.13940726 0
-4.7901158 3.681752 0.13660593 0
3.778801 3.68736 0.13068138 0
3.8642421 3.7039793 0.11380915 0
7.9874072 3.6959612 0.094926581 0
8.0768766 3.6837082 0.11201384 0
-4.8182149 3.8971505 0.14118333 0
-4.7902908 3.8857751 0.13311224 0
3.7786739 3.8939705 0.12542209 0
3.8450089 3.8865387 0.12961853 0
7.9821138 3.8851941 0.088169269 0
8.084568 3.8563499 0.10845443 0
-4.8207903 4.06951 0.14145693 0
-4.7860327 4.0673084 0.13849208 0
3.7783883 4.0990858 0.12746279 0
3.8566959 4.1119251 0.11691756 0
7.9783082 4.0933366 0.082527712 0
8.0778666 4.0441442 0.10305515 0
-4.8193164 4.2888694 0.14392389 0
-4.7892389 4.2782421 0.14082322 0
3.7741935 4.3011136 0.11109305 0
3.8539629 4.2912583 0.124353 0
7.9729462 4.2955899 0.10295665 0
8.0857124 4.3009529 0.10276738 0
-4.8159294 4.5198402 0.14078721 0
-4.7844753 4.4731836 0.14701618 0
3.7804334 4.4782438 0.12542918 0
3.8578866 4.4991465 0.11979221 0
7.9698529 4.4958715 0.086805604 0
8.0876627 4.5613718 0.10068114 0
-4.7906642 4.6401401 0.14986917 0
3.7820933 4.6516051 0.13946681 0
3.8471963 4.7197156 0.14379495 0
7.9687476 4.7210054 0.09539827 0
8.0851355 4.6907787 0.11880964 0
3.7741191 4.9036474 0.11485429 0
3.844625 4.9160233 0.13529524 0
7.9700298 4.9122534 0.092080913 0
8.0896978 4.9121709 0.11431297 0
3.7732446 5.1404257 0.11748183 0
3.8525584 5.1122394 0.145459 0
7.9585271 5.1298146 0.10520049 0
8.0890522 5.0875292 0.077642426 0
3.7730336 5.3093987 0.11937813 0
3.8444798 5.3102102 0.15195902 0
7.9396362 5.350184 0.13002202 0
8.0893288 5.2971821 0.11532463 0
3.7742124 5.4899325 0.12142478 0
3.8350015 5.5009398 0.14191335 0
7.9578228 5.5020156 0.10523961 0
8.0986042 5.5992036 0.15703987 0
3.7721491 5.6731153 0.123502 0
3.8731265 5.7026939 0.12213826 0
4.0882702 5.7915316 0.059754118 0
4.3106403 5.7936921 0.05598053 0
4.5227957 5.7922573 0.052344281 0
4.6934838 5.7970138 0.14653905 0
4.9119234 5.7918291 0.1870883 0
5.0799251 5.7983379 0.042100791 0
7.928369 5.7536397 0.085998483 0
8.0875111 5.6590748 0.094930895 0
-6.9598889 5.9369617 0.18489143 0
-6.6518955 5.9403763 0.16656429 0
-6.5272603 5.9516406 0.18228009 0
-6.3730564 5.9401917 0.14584161 0
-6.1402764 5.9488044 0.1572115 0
-5.9045 5.9535947 0.15499541 0
-5.7093921 5.9509702 0.16079997 0
-5.4999804 5.946836 0.15994269 0
-5.2914648 5.9510331 0.15606755 0
-5.0711417 5.9492559 0.15087314 0
-4.8965397 5.9506116 0.14804026 0
-4.705286 5.9485917 0.14300804 0
-4.5074401 5.948235 0.14618675 0
-4.3028107 5.9478068 0.13843384 0
-4.0923562 5.9502039 0.13709278 0
-3.8958755 5.9489565 0.13644087 0
-3.7066734 5.9483733 0.13567927 0
-3.5027483 5.9466219 0.13753283 0
-3.2952859 5.9443569 0.13981555 0
-3.0884922 5.9456272 0.14089875 0
-2.890878 5.9465175 0.14036813 0
-2.7022707 5.9427404 0.14230309 0
-2.5043917 5.9437513 0.14060329 0
-2.3101432 5.9426298 0.14502212 0
-2.1064248 5.9402304 0.147175 0
-1.8972497 5.9402528 0.14814949 0
-1.6975758 5.9420223 0.14874911 0
-1.5053778 5.9409361 0.152227 0
-1.3097495 5.9392123 0.1531471 0
-1.1115814 5.9411492 0.14993292 0
-0.90153891 5.936995 0.15635812 0
-0.7034142 5.9391093 0.15436162 0
-0.49943998 5.9356203 0.15723848 0
-0.29006401 5.9350834 0.16030198 0
-0.098180257 5.9373622 0.15684487 0
0.099964291 5.9366627 0.15760131 0
0.30689228 5.9333739 0.16294581 0
0.50498259 5.9301538 0.16322114 0
0.70512867 5.936542 0.16178614 0
0.90629238 5.93327 0.16301467 0
1.1051785 5.9317045 0.1660852 0
1.3022224 5.9311275 0.16345331 0
1.5069449 5.9290347 0.16384679 0
1.7013206 5.9301038 0.16384746 0
1.8978505 5.9291039 0.16515806 0
2.0961561 5.9276495 0.16532104 0
2.2827418 5.9280987 0.16700172 0
2.4899151 5.9265876 0.16755469 0
2.6889875 5.9299235 0.16953993 0
2.8879578 5.9253206 0.16804445 0
3.1023316 5.9261961 0.16666856 0
3.3110271 5.9237747 0.16485605 0
3.4936626 5.9222264 0.17224048 0
3.6896698 5.9210172 0.15539141 0
3.8726966 5.8803329 0.16649322 0
4.0982161 5.9327941 0.13856773 0
4.3485632 5.9263992 0.10884551 0
4.5181828 5.9264531 0.094506517 0
4.7106686 5.8927045 0.09315715 0
4.8953204 5.9081573 0.085681491 0
5.0914984 5.8849854 0.10028242 0
5.2979879 5.877984 0.09309081 0
5.513546 5.8897462 0.093941405 0
5.7086887 5.8912802 0.092773482 0
5.9014015 5.8862429 0.087465025 0
6.1048813 5.8910336 0.084824555 0
6.3025298 5.8990717 0.084823281 0
6.5022616 5.901792 0.079791166 0
6.7119608 5.8993993 0.074856386 0
6.9029999 5.9091544 0.088228039 0
7.1036787 5.9153333 0.10371344 0
7.2936921 5.915174 0.10504737 0
7.4932795 5.9193697 0.10309274 0
7.6983361 5.9146881 0.099359907 0
7.8975983 5.9093008 0.10303748 0
8.060297 5.9046335 0.098655291 0
-5.9984279 -7.8042884 0.33417076 0
-5.5922484 -7.8097024 0.32540789 0
-5.1926246 -7.8078485 0.31685492 0
-3.4337878 -7.8051515 0.27993053 0
-2.8153586 -7.8009953 0.26727971 0
-2.2436233 -7.801024 0.2557635 0
1.9372668 -7.8015118 0.21656694 0
2.1600289 -7.8098211 0.22015071 0
2.6627254 -7.8082123 0.22827235 0
3.0569921 -7.8076582 0.23504205 0
3.3238783 -7.8048258 0.28331271 0
3.4572535 -7.8109484 0.24233964 0
5.6831722 -7.8067961 0.28840417 0
5.8916278 -7.8123217 0.29327625 0
6.1080661 -7.8230391 0.29849747 0
6.3236876 -7.823627 0.30359477 0
6.462584 -7.810102 0.30669183 0
6.6097245 -7.8073821 0.31019443 0
7.3042388 -7.8015432 0.2971288 0
7.5239196 -7.8001924 0.2286066 0
7.7131095 -7.8051233 0.23214015 0
7.9040828 -7.8048491 0.235669 0
-9.6390972 -7.6841617 0.31280571 0
-9.4981747 -7.7038298 0.3132565 0
-9.2912426 -7.7551498 0.29473975 0
-9.0966434 -7.7597742 0.30025759 0
-8.9069719 -7.7558317 0.29068896 0
-8.7034702 -7.7593536 0.29543281 0
-8.4845905 -7.7561197 0.2967878 0
-8.2958994 -7.7581129 0.31095141 0
-8.0887699 -7.7572823 0.30031046 0
-7.8897557 -7.7577453 0.2967034 0
-7.7256503 -7.7573452 0.28249952 0
-7.5090413 -7.756104 0.29786471 0
-7.3092933 -7.7584133 0.29511052 0
-7.0969396 -7.7572618 0.29757792 0
-6.8933692 -7.75771 0.29178858 0
-6.7236352 -7.7565737 0.28221416 0
-6.4940119 -7.7572093 0.29748496 0
-6.2903748 -7.7558508 0.29635787 0
-6.1002622 -7.757297 0.28901675 0
-5.9019103 -7.7561584 0.28007784 0
-5.6990075 -7.75282 0.2962606 0
-5.4901099 -7.7535977 0.29659429 0
-5.2980094 -7.7539988 0.29303509 0
-5.0916748 -7.7555809 0.28821436 0
-4.8973651 -7.7562323 0.29645053 0
-4.7001424 -7.754961 0.30485985 0
-4.4977551 -7.7551394 0.30250147 0
-4.2982025 -7.755012 0.29950306 0
-4.0936742 -7.7555184 0.29148504 0
-3.9002452 -7.7568192 0.29291359 0
-3.6996105 -7.7562666 0.2967782 0
-3.5022538 -7.7574039 0.29480523 0
-3.2999158 -7.755877 0.29799303 0
-3.1025565 -7.7567153 0.29118863 0
-2.9013307 -7.7570872 0.29455432 0
-2.7016575 -7.7572341 0.29608798 0
-2.4986975 -7.7587352 0.29427734 0
-2.2982948 -7.757936 0.30234107 0
-2.0990727 -7.7580132 0.3010852 0
-1.9055331 -7.7601881 0.29752782 0
-1.7015795 -7.7595515 0.3004362 0
-1.5021552 -7.760973 0.29107109 0
-1.3016895 -7.7603517 0.28531146 0
-1.1002047 -7.7600665 0.28687149 0
-0.89788073 -7.7609968 0.29509345 0
-0.69983292 -7.7628388 0.29782227 0
-0.50553662 -7.7617412 0.29983425 0
-0.2991842 -7.7613168 0.29138389 0
-0.096982732 -7.7614145 0.30571547 0
0.092162721 -7.7631378 0.30277735 0
0.29594624 -7.7638822 0.29638112 0
0.49700651 -7.7661486 0.3005046 0
0.6966629 -7.7659707 0.29710883 0
0.90192866 -7.7680721 0.29214284 0
1.1042497 -7.7705345 0.28637972 0
1.3048745 -7.7684665 0.28760651 0
1.506308 -7.7677598 0.29049203 0
1.6971718 -7.770319 0.29195914 0
1.8928007 -7.770339 0.29044926 0
2.0909431 -7.7700014 0.29291773 0
2.2988765 -7.771637 0.29245663 0
2.5039408 -7.7707815 0.29932213 0
2.6968057 -7.7712126 0.29897273 0
2.8942826 -7.7741261 0.29479373 0
3.1076162 -7.7728233 0.29395214 0
3.2964334 -7.7731586 0.29496992 0
3.491657 -7.7712255 0.29885209 0
3.6336789 -7.7000751 0.2597833 0
3.9018734 -7.782475 0.29851696 0
4.0804429 -7.785605 0.3004441 0
4.2900147 -7.7875776 0.30313617 0
4.5182323 -7.7815056 0.31909949 0
4.6913676 -7.7767487 0.31462076 0
4.8924441 -7.7767844 0.32269534 0
5.106349 -7.7839613 0.33825463 0
5.3079615 -7.7852898 0.34479576 0
5.5081778 -7.7890291 0.35200506 0
5.6943674 -7.7863245 0.36887413 0
5.8898149 -7.7848754 0.3030602 0
6.1043177 -7.7854371 0.28965861 0
6.2965961 -7.7883935 0.28057504 0
6.4979033 -7.7840714 0.30043441 0
6.7049465 -7.7880754 0.29123133 0
6.8887191 -7.7786551 0.29434332 0
7.1075764 -7.7756672 0.29794791 0
7.3326011 -7.7837114 0.26776081 0
7.5070505 -7.7801132 0.27673787 0
7.7379432 -7.7797089 0.2402596 0
7.9225821 -7.7639303 0.25764823 0
8.0385418 -7.7219896 0.24159046 0
-9.639926 -7.5068078 0.32227579 0
-9.5067501 -7.5031857 0.30752176 0
3.5894089 -7.4781322 0.24555135 0
3.6306534 -7.4902859 0.26485211 0
8.054328 -7.4912958 0.2382381 0
-9.6438675 -7.3005738 0.32816231 0
-9.5062885 -7.2971344 0.30724797 0
3.5958879 -7.249475 0.24792282 0
3.6284637 -7.2969294 0.25666687 0
8.0486212 -7.3072739 0.2174474 0
-9.6453123 -7.0943007 0.32771522 0
-9.5047216 -7.0934582 0.30628508 0
3.6311934 -7.1044064 0.24998286 0
8.0510769 -7.0951529 0.25376141 0
-9.6425676 -6.8965993 0.32767355 0
-9.5040579 -6.902554 0.30754617 0
3.599452 -6.8084617 0.23058286 0
3.6264703 -6.9123025 0.25978512 0
8.0568485 -6.9224215 0.28438514 0
-9.6442556 -6.6986341 0.32977632 0
-9.5021439 -6.710104 0.30657202 0
-4.9036012 -6.6873951 0.31386366 0
-4.7395177 -6.690011 0.29926607 0
-4.59692 -6.7578034 0.2906096 0
3.5913982 -6.746068 0.32934165 0
3.627775 -6.7094588 0.27365559 0
8.0536747 -6.6978512 0.27580887 0
-9.6429787 -6.4918199 0.32522145 0
-9.5030165 -6.5018606 0.30815586 0
-4.9031482 -6.5015345 0.31546801 0
-4.7446547 -6.5016341 0.30069011 0
3.5969715 -6.4743567 0.30707923 0
3.6295753 -6.5091629 0.26601315 0
8.0525875 -6.4867425 0.27842584 0
-9.6406155 -6.2969666 0.32094657 0
-9.5090685 -6.3011432 0.30984735 0
-4.9007463 -6.2991509 0.2879796 0
-4.7441001 -6.3005385 0.29183403 0
3.5944128 -6.3225298 0.31650019 0
3.626852 -6.3012042 0.27656204 0
8.0557966 -6.2778292 0.30820248 0
-9.6366825 -6.1121769 0.29697898 0
-9.5043278 -6.1045995 0.30948934 0
-4.8883257 -6.1194749 0.28353068 0
-4.744185 -6.1023035 0.2952747 0
3.5860913 -6.0766325 0.36978272 0
3.6370969 -6.1047726 0.27652881 0
8.0525522 -6.0960021 0.3139309 0
-9.640254 -5.9111552 0.27677563 0
-9.5062542 -5.8942394 0.32211491 0
-4.8875041 -5.8979225 0.29952452 0
-4.7450209 -5.9019947 0.30298334 0
3.5943165 -5.9240417 0.30455801 0
3.6277213 -5.9000397 0.27030057 0
8.0512457 -5.8949366 0.31970251 0
-9.6367435 -5.696826 0.286654 0
-9.4972429 -5.7009354 0.32087538 0
-4.9026494 -5.6882534 0.31758046 0
-4.7442803 -5.6997457 0.30177015 0
3.5930955 -5.7011528 0.30800471 0
3.6308653 -5.6923337 0.26614955 0
8.0498791 -5.6960788 0.30585954 0
-9.6411858 -5.5011802 0.28514305 0
-9.5037394 -5.5016661 0.32583132 0
-4.8858924 -5.4885025 0.32117763 0
-4.7434959 -5.5007858 0.29318127 0
3.5904787 -5.5273986 0.34542868 0
3.6279323 -5.4970202 0.27845207 0
8.0548639 -5.5066323 0.299505 0
-9.6388502 -5.3142276 0.29797459 0
-9.5049572 -5.3032045 0.28133813 0
-4.9001861 -5.2964067 0.33009908 0
-4.7443757 -5.3014827 0.29840159 0
3.5936999 -5.3775229 0.28883088 0
3.6371851 -5.2948523 0.28105432 0
8.0526791 -5.3035455 0.31097126 0
-9.6380854 -5.1029539 0.30213776 0
-9.4994478 -5.1005716 0.26591843 0
-4.9027166 -5.1058936 0.26168939 0
-4.7424788 -5.0985804 0.2921043 0
3.5938427 -5.127049 0.29613665 0
3.6313362 -5.0945802 0.29112807 0
8.0552883 -5.1111512 0.31994501 0
-9.6394005 -4.892652 0.27747294 0
-9.4955626 -4.9121981 0.27021509 0
-4.8920865 -4.889255 0.27432278 0
-4.7418032 -4.8947678 0.29723459 0
3.5950537 -4.8963895 0.31834838 0
3.6385777 -4.8905454 0.28453109 0
8.0547142 -4.9148464 0.3229273 0
-9.633379 -4.7075181 0.28327841 0
-9.5056343 -4.7057099 0.27580085 0
-4.9052939 -4.7129965 0.27421215 0
-4.7422919 -4.6972246 0.29753205 0
3.5929356 -4.6800284 0.30922157 0
3.6369736 -4.6923103 0.28546065 0
8.0575848 -4.7079883 0.31764683 0
-9.6422691 -4.5253835 0.29394278 0
-9.4968624 -4.5014472 0.28143358 0
-4.8961825 -4.499701 0.29390734 0
-4.7423067 -4.4956889 0.29907891 0
3.5885253 -4.4716582 0.30048054 0
3.6316428 -4.4992852 0.28952241 0
8.0569649 -4.494092 0.32392278 0
-9.6366358 -4.2963414 0.29880789 0
-9.5001316 -4.2940135 0.28665549 0
-4.901144 -4.2872043 0.29731703 0
-4.7420473 -4.3003979 0.29757982 0
3.593569 -4.2865624 0.29315519 0
3.6288621 -4.3013978 0.2898185 0
8.0569811 -4.2926807 0.32008487 0
-9.6368198 -4.0892444 0.28729153 0
-9.4995823 -4.1025515 0.29287159 0
-4.907351 -4.1197796 0.30635023 0
-4.7434797 -4.0998988 0.29705495 0
3.5918729 -4.1019044 0.28574055 0
3.6300552 -4.1072941 0.28568062 0
8.0606775 -4.1052971 0.31933445 0
-9.6362534 -3.9025509 0.28181523 0
-9.5009575 -3.9205019 0.29864722 0
-4.9039989 -3.9237058 0.31781787 0
-4.7408819 -3.9015164 0.29554871 0
3.59131 -3.9847233 0.28112972 0
3.6387012 -3.8828664 0.28209355 0
8.0636349 -3.8994966 0.31498414 0
-9.6338768 -3.7021008 0.2885671 0
-9.5027142 -3.7051468 0.30699334 0
-4.9044204 -3.733654 0.30535558 0
-4.74225 -3.7030215 0.29415679 0
3.5897481 -3.7607298 0.27246654 0
3.6981783 -3.7847564 0.29353064 0
8.0612526 -3.6905298 0.29381865 0
-9.6325693 -3.5141213 0.30345246 0
-9.4974976 -3.5032461 0.31021568 0
-4.9053812 -3.4876618 0.27033222 0
-4.7396975 -3.5024159 0.29317203 0
8.0614357 -3.49755 0.29282621 0
-9.633256 -3.3017988 0.30301607 0
-9.4977379 -3.3185554 0.31876364 0
-4.9076748 -3.304867 0.27847877 0
-4.7404318 -3.3041062 0.29053029 0
8.0607719 -3.3031051 0.29792652 0
-9.6312695 -3.0792785 0.31343022 0
-9.4984131 -3.09097 0.32692963 0
-4.8843775 -3.1284697 0.2846562 0
-4.7391043 -3.1015034 0.2821734 0
8.0626287 -3.0899439 0.294099 0
-9.6372757 -2.9033251 0.31543481 0
-9.5022879 -2.8800886 0.33817625 0
-4.9052725 -2.8763123 0.29813772 0
-4.7383771 -2.8989577 0.2880474 0
3.7519662 -2.8184686 0.29220417 0
3.8957098 -2.8207729 0.29498163 0
4.1021132 -2.8191664 0.30595279 0
4.2887931 -2.819685 0.2878868 0
4.5054159 -2.8219976 0.28737286 0
4.6901875 -2.8228755 0.29750389 0
4.8987794 -2.8229301 0.29827625 0
5.0922832 -2.8238785 0.28385445 0
5.2890944 -2.8242326 0.29221371 0
5.484324 -2.8222833 0.29736114 0
5.7074337 -2.8255949 0.28317785 0
5.9072509 -2.8234749 0.27025935 0
6.0758839 -2.8254881 0.29633129 0
6.285955 -2.8253672 0.28341755 0
6.5029716 -2.8294785 0.29310426 0
6.7346134 -2.825516 0.29254082 0
6.9292436 -2.829777 0.2723079 0
7.0932426 -2.8279192 0.30471006 0
7.3264813 -2.8246429 0.30577153 0
7.4704514 -2.8298199 0.28661713 0
7.6866407 -2.8298664 0.28605455 0
8.0586481 -2.895366 0.28683653 0
-9.6283445 -2.7013786 0.32751256 0
-9.4929771 -2.6908963 0.33810452 0
-4.9093761 -2.7266493 0.30498379 0
-4.7381201 -2.6991022 0.28823644 0
3.7484484 -2.7068317 0.28670534 0
3.9009562 -2.6673532 0.29289195 0
4.1014237 -2.6663358 0.29464862 0
4.2974834 -2.6658883 0.29800916 0
4.5020218 -2.6678715 0.29895428 0
4.7024732 -2.6668334 0.2971465 0
4.9032369 -2.6678002 0.30139866 0
5.098805 -2.6696062 0.29778504 0
5.2983847 -2.6710036 0.29625732 0
5.5009341 -2.670537 0.29948145 0
5.7006721 -2.6723797 0.30022547 0
5.9014106 -2.6721957 0.30332574 0
6.1032872 -2.6741028 0.30899912 0
6.2992816 -2.6743224 0.30184695 0
6.5026054 -2.6749902 0.3019537 0
6.6996946 -2.6752024 0.30125749 0
6.8943944 -2.6753881 0.30525586 0
7.0991144 -2.6765492 0.30200329 0
7.3040395 -2.676497 0.3037408 0
7.5027976 -2.6775577 0.30563158 0
7.699789 -2.6762676 0.29736528 0
7.9053316 -2.6769528 0.2980383 0
8.0504217 -2.6605046 0.30305025 0
-9.6354456 -2.4968665 0.33185923 0
-9.4994402 -2.4440579 0.33084431 0
-9.2842827 -2.4151278 0.32734922 0
-9.0794115 -2.4120269 0.33528003 0
-8.8929338 -2.4112022 0.32293943 0
-8.6973524 -2.4120731 0.30192944 0
-8.4835701 -2.4114208 0.31009701 0
-8.2908745 -2.4126554 0.30243862 0
-8.0949183 -2.4088106 0.3050186 0
-7.87883 -2.4127333 0.29937607 0
-7.702836 -2.4113333 0.2982823 0
-7.5151439 -2.4119256 0.29466653 0
-7.2973223 -2.4139762 0.28914681 0
-7.0885425 -2.4106522 0.28896609 0
-6.8957677 -2.4113078 0.28970027 0
-6.7197967 -2.413718 0.28214824 0
-6.5043187 -2.4133563 0.28196973 0
-6.3118715 -2.4116073 0.28461853 0
-6.1003723 -2.411984 0.28195861 0
-5.9007497 -2.4120653 0.27980718 0
-5.6943364 -2.41312 0.28223366 0
-5.489778 -2.4144149 0.28021201 0
-5.2846599 -2.4106073 0.29058206 0
-5.0884919 -2.4120903 0.28571063 0
-4.9123378 -2.425041 0.28648508 0
-4.7375994 -2.4958811 0.28540832 0
8.0616817 -2.5014307 0.29563287 0
-9.6359673 -2.2045667 0.2711899 0
-9.4774475 -2.2961993 0.32565445 0
-9.2960968 -2.2696064 0.27425113 0
-9.1044607 -2.2697055 0.29110938 0
-8.9107132 -2.2183599 0.28260198 0
-8.6833563 -2.293577 0.30448046 0
-8.4948969 -2.2487805 0.27238289 0
-8.2950602 -2.2557275 0.28780425 0
-8.0975027 -2.2229207 0.30514416 0
-7.9051909 -2.2564812 0.30664808 0
-7.6985645 -2.2429578 0.30537283 0
-7.5065737 -2.2354751 0.29731062 0
-7.3063936 -2.2220254 0.29030237 0
-7.1078215 -2.2297032 0.28435174 0
-6.9178786 -2.2425644 0.28357837 0
-6.7020655 -2.2434013 0.3005234 0
-6.501276 -2.2257383 0.29880321 0
-6.2979774 -2.2350829 0.29456568 0
-6.0952334 -2.2278254 0.29541975 0
-5.9017782 -2.2355342 0.29524228 0
-5.7018318 -2.234791 0.29071552 0
-5.5015655 -2.240237 0.28407964 0
-5.304441 -2.2434578 0.28279221 0
-5.1030278 -2.234942 0.29179665 0
-4.9420624 -2.2509453 0.29426044 0
-4.7371483 -2.2970393 0.28669649 0
8.0628157 -2.292655 0.29767478 0
-9.6355534 -2.0943782 0.29120016 0
-9.4895353 -2.1893911 0.27254918 0
-9.2921801 -2.1876581 0.30750662 0
-9.1002426 -2.1860309 0.27036542 0
-8.9122829 -2.1916659 0.29059288 0
-8.7009087 -2.1933277 0.30783087 0
-8.4972839 -2.1963856 0.3041268 0
-8.3055277 -2.1932738 0.29782516 0
-8.080862 -2.1941054 0.27634886 0
-7.8897319 -2.1941166 0.29775235 0
-7.7032127 -2.1924362 0.2113944 0
-7.4298258 -2.1916707 0.28023797 0
-7.2755089 -2.1970961 0.29507732 0
-7.1316719 -2.1961803 0.32455993 0
-6.9031391 -2.1988792 0.3403312 0
-6.188921 -2.1985531 0.31065834 0
-4.8847036 -2.1404185 0.28589049 0
-4.7363653 -2.0981672 0.28005493 0
8.0609188 -2.0974092 0.29616016 0
-9.6320696 -1.8923373 0.27481574 0
-4.8814549 -1.9132328 0.28835276 0
-4.735714 -1.9011499 0.28055412 0
8.0621119 -1.900763 0.29946092 0
-9.6305742 -1.7053318 0.28394479 0
-4.8797855 -1.7104899 0.2820347 0
-4.7353425 -1.7028416 0.27877584 0
8.0648489 -1.6977762 0.29665545 0
-9.6309147 -1.4948884 0.2912201 0
-4.8768325 -1.5188076 0.30945414 0
-4.7335334 -1.5004039 0.29074475 0
8.0631685 -1.495193 0.29721078 0
-9.6283998 -1.2929899 0.28754354 0
-4.8746185 -1.2938159 0.30432791 0
-4.7330365 -1.301017 0.3002297 0
8.0656338 -1.2983549 0.29475355 0
-9.6248503 -1.1010928 0.28264958 0
-4.8721766 -1.0925032 0.31866026 0
-4.7327938 -1.1039374 0.28803173 0
8.0662451 -1.0971164 0.29547831 0
-9.6223011 -0.89354992 0.2726078 0
-4.8715382 -0.89133352 0.29554418 0
-4.7346859 -0.89556134 0.27553341 0
8.0669079 -0.89990973 0.30193302 0
-9.6229849 -0.6938197 0.29784256 0
-4.8703799 -0.69027358 0.30304572 0
-4.7350297 -0.70158577 0.28260848 0
8.0702257 -0.69967896 0.29991847 0
-9.6229267 -0.50143594 0.29257745 0
-4.8661518 -0.50092 0.29500094 0
-4.7349558 -0.50143886 0.28880525 0
8.0723028 -0.50201231 0.2931259 0
-9.6183538 -0.29966104 0.29403713 0
-9.5978975 -0.2771343 0.25039095 0
-4.8643703 -0.2932786 0.29485828 0
-4.7338519 -0.30056858 0.29628703 0
8.0720587 -0.29982197 0.29486993 0
-9.6184196 -0.090397835 0.28965002 0
-4.864346 -0.095824406 0.29951152 0
-4.732923 -0.10349506 0.29002813 0
8.0698662 -0.11161638 0.2956422 0
-9.617341 0.10114691 0.28723177 0
-9.5996914 0.096858501 0.23568495 0
-4.8617148 0.10918947 0.30030614 0
-4.733851 0.087586708 0.28114372 0
6.3858776 0.17068909 0.29188803 0
6.4655805 0.14021815 0.29165295 0
8.0644045 0.10124873 0.30336377 0
-9.6170139 0.29868734 0.28113437 0
-4.8592429 0.30173168 0.28544515 0
-4.7314506 0.3175717 0.28453252 0
6.382905 0.2971288 0.29623374 0
6.4846301 0.31527078 0.28955907 0
8.0633211 0.29635978 0.30171898 0
-9.6141338 0.49892354 0.27733028 0
-9.597333 0.56417656 0.22216739 0
-4.8592424 0.50283915 0.28683156 0
-4.7282462 0.50474328 0.28719443 0
6.383954 0.49716651 0.30122328 0
6.4999032 0.49951196 0.30181667 0
8.0612144 0.50216335 0.29885185 0
-9.6151304 0.68923092 0.27600133 0
-9.5955992 0.70568222 0.29217669 0
-4.8410482 0.62021083 0.27165252 0
-4.7490678 0.62405956 0.29436317 0
6.3837285 0.69608879 0.29826936 0
6.5017471 0.69642299 0.29166442 0
8.0599756 0.70110321 0.29171696 0
-9.6133337 0.89783734 0.27869162 0
-9.5955915 0.88682735 0.27809519 0
6.3854723 0.8951484 0.29678589 0
6.4847479 0.89182961 0.29189917 0
8.064579 0.8967185 0.28526798 0
-9.6178465 1.1004673 0.28195855 0
-9.5957355 1.1169153 0.26210219 0
6.3874564 1.1043469 0.29204184 0
6.4908528 1.1173913 0.29777512 0
8.0734921 1.1085511 0.28955588 0
-9.6156816 1.3024808 0.27933076 0
-9.5942717 1.3213737 0.26404423 0
6.3856697 1.3038571 0.2992689 0
6.5296168 1.297462 0.28621444 0
8.080554 1.2986542 0.28654346 0
-9.6154346 1.5009066 0.28245905 0
-9.594512 1.5122923 0.26279202 0
6.3875523 1.4958616 0.29594332 0
6.5196109 1.4937167 0.3003265 0
8.0769005 1.4945097 0.29689047 0
-9.6104174 1.663789 0.2896696 0
-9.5573921 1.6999043 0.26813748 0
-9.3174772 1.7316065 0.28961676 0
-9.0875463 1.7269762 0.29999298 0
-8.9209957 1.7256014 0.30211562 0
-8.7028952 1.7269243 0.28436968 0
-8.4950037 1.7267307 0.30048865 0
-8.2918739 1.722154 0.2982173 0
-8.0907154 1.7192938 0.29588392 0
-7.9040351 1.7207369 0.27402952 0
-7.7060308 1.7197344 0.2865957 0
-7.4803267 1.7229234 0.29715016 0
-7.2886391 1.7166954 0.29742974 0
-7.0930586 1.7201012 0.2971094 0
-6.8933277 1.7175179 0.2812247 0
-6.6995735 1.7131712 0.26681975 0
-6.5057855 1.6966265 0.30015919 0
-6.3014431 1.6927811 0.29642609 0
-6.0927858 1.692826 0.28855264 0
-5.8955684 1.6909575 0.27308148 0
-5.6988659 1.6892738 0.28591222 0
-5.5138769 1.6887723 0.28479671 0
-5.2943912 1.6866874 0.30828518 0
-5.0864372 1.6884692 0.30316254 0
-4.8910904 1.6965855 0.29139742 0
-4.7931838 1.7349722 0.28083494 0
3.7922022 1.7557849 0.27629456 0
3.8922822 1.7458402 0.29371202 0
4.0979877 1.7435132 0.29667702 0
4.2991405 1.7431623 0.29279259 0
4.4986415 1.7430403 0.29184657 0
4.6985183 1.7419037 0.29903132 0
4.8980932 1.743277 0.29818174 0
5.0993896 1.7426462 0.29272455 0
5.3026085 1.7425275 0.29097149 0
5.5005212 1.7444817 0.29325965 0
5.6954393 1.7437506 0.29904214 0
5.8959494 1.7422423 0.30202037 0
6.0983415 1.7404559 0.30004787 0
6.3217444 1.7141404 0.29664332 0
6.5242014 1.6969392 0.29382771 0
8.0704031 1.6981357 0.2931765 0
-4.8116088 1.8882154 0.31072101 0
-4.7952909 1.8963852 0.30092251 0
3.7818208 1.901023 0.28261897 0
3.8383374 1.9054183 0.2748524 0
5.9124956 1.802552 0.31879663 0
6.1175885 1.8065095 0.28983697 0
6.3061609 1.8121641 0.30268937 0
6.5097871 1.8241984 0.29954013 0
8.0808735 1.9008095 0.3002817 0
-4.8132811 2.0966289 0.29633263 0
-4.7959676 2.0845313 0.30988002 0
3.7798119 2.1154928 0.28133291 0
3.8442979 2.1077902 0.26268798 0
8.0768538 2.1033909 0.27883914 0
-4.8153081 2.3047974 0.29666457 0
-4.7948551 2.2795274 0.30258331 0
3.7794495 2.3107536 0.29825374 0
3.8450875 2.2901418 0.26152867 0
8.0612192 2.3039656 0.28790876 0
-4.8184624 2.4862504 0.2920287 0
-4.7934046 2.5152729 0.31598523 0
3.7826827 2.4909477 0.289794 0
3.8420181 2.4880266 0.26876253 0
8.0568953 2.4959786 0.29493731 0
-4.8148623 2.7177107 0.28238332 0
-4.7939916 2.6962342 0.31584615 0
3.7840841 2.6972258 0.28021601 0
3.841738 2.690964 0.26163784 0
8.0557833 2.6963761 0.29843375 0
-4.8196607 2.9023933 0.28794631 0
-4.7929444 2.9370651 0.30290177 0
3.7838807 2.9042897 0.27897006 0
3.8413241 2.8895333 0.259992 0
8.0605907 2.892154 0.30178565 0
-4.8199539 3.0947149 0.31129876 0
-4.7910743 3.1074553 0.29630822 0
3.7863255 3.0992901 0.27276152 0
3.8460212 3.089669 0.26011792 0
8.0596552 3.092967 0.29638973 0
-4.8194571 3.2714715 0.28383198 0
-4.7898765 3.3052075 0.32598925 0
3.7830153 3.3030245 0.26706037 0
3.8623235 3.294853 0.26743332 0
7.9967828 3.3626416 0.27527544 0
8.0469837 3.309083 0.28659829 0
-4.819766 3.488811 0.28867316 0
-4.7896242 3.533427 0.30390292 0
3.7850251 3.5113289 0.27039859 0
3.8684595 3.498744 0.27139363 0
7.9953156 3.4961221 0.27137941 0
8.0461493 3.4952166 0.30236113 0
-4.8223138 3.7026052 0.28870595 0
-4.7880793 3.7272835 0.28777871 0
3.7810388 3.6816881 0.26788026 0
3.8645701 3.6922503 0.27155405 0
7.9905801 3.6895149 0.29623231 0
8.0671186 3.7079647 0.31265068 0
-4.8232183 3.9237013 0.31310281 0
-4.7893949 3.8887997 0.29050475 0
3.7850304 3.8993683 0.28886393 0
3.8478417 3.8997395 0.26062369 0
7.9871926 3.8975921 0.28852868 0
8.0762358 3.9238675 0.33242735 0
-4.8153024 4.0788436 0.28198978 0
-4.7882338 4.0950065 0.27261862 0
3.7783718 4.1231008 0.28665695 0
3.8593147 4.1028476 0.2646066 0
7.9833951 4.1059108 0.30491152 0
8.0666323 4.0794415 0.30779955 0
-4.8262572 4.2805104 0.30662742 0
-4.7894087 4.3010015 0.29298908 0
3.7857628 4.2844181 0.27388087 0
3.8431582 4.285326 0.26045078 0
7.9798322 4.3014717 0.29710048 0
8.0874748 4.3044925 0.29761711 0
-4.8319426 4.5021167 0.36819747 0
-4.7898121 4.4897709 0.26794228 0
3.7800682 4.4733787 0.28788725 0
3.848166 4.4975309 0.26545197 0
7.9757195 4.4981222 0.28888521 0
8.0891523 4.5506425 0.30763251 0
-4.8010898 4.6200728 0.24678291 0
-4.7822132 4.6541629 0.27292362 0
3.7847009 4.7094312 0.28369671 0
3.8446681 4.6955676 0.27051058 0
7.9709864 4.7167158 0.30506721 0
8.0915203 4.70123 0.33213803 0
3.7800121 4.9029393 0.30655983 0
3.8395584 4.9070039 0.26446676 0
7.9762125 4.9050894 0.29739553 0
8.0902243 4.9010367 0.34152392 0
3.7848756 5.1107535 0.29879335 0
3.8460474 5.1072197 0.28466266 0
7.9665051 5.1312361 0.31493559 0
8.0999765 5.0942483 0.33434415 0
3.7776012 5.3345313 0.32430163 0
3.8384879 5.297184 0.27087653 0
7.9473171 5.3593698 0.33235157 0
8.0893736 5.2974215 0.32585418 0
3.7867033 5.4754643 0.30798802 0
3.830924 5.4985647 0.2677792 0
7.965322 5.5044127 0.29002678 0
8.1023121 5.5927181 0.30228236 0
3.782795 5.7222342 0.33795759 0
3.8518002 5.7131343 0.27492124 0
4.107048 5.7804861 0.29951864 0
4.2743497 5.7941818 0.29102442 0
4.4872546 5.7937484 0.2797913 0
4.6509981 5.7938695 0.34525824 0
5.0184822 5.7988071 0.32302177 0
7.9331384 5.7531204 0.25712305 0
8.0883989 5.7244163 0.32506001 0
-7.7735062 5.9614706 0.28338784 0
-7.2820234 5.9532576 0.27538618 0
-7.1975555 5.9597964 0.27667338 0
-6.9322195 5.9570885 0.24035591 0
-6.761342 5.9578505 0.2520321 0
-6.4633331 5.9585705 0.23994425 0
-6.3392472 5.9583354 0.23417008 0
-6.075408 5.9630022 0.22894153 0
-5.9144316 5.9532967 0.22568777 0
-5.7104921 5.9530282 0.226547 0
-5.5154562 5.9551282 0.21812162 0
-5.259758 5.9487009 0.2264757 0
-5.0552645 5.9539256 0.26013517 0
-4.8961053 5.9473386 0.28009659 0
-4.7099576 5.949481 0.28102061 0
-4.517961 5.948451 0.28326073 0
-4.3171406 5.9512463 0.27685043 0
-4.1069355 5.9482493 0.27745071 0
-3.8898456 5.9485383 0.27079418 0
-3.690305 5.9455547 0.28486195 0
-3.4969571 5.9496408 0.28496173 0
-3.2976639 5.9430537 0.29020724 0
-3.1028259 5.9466681 0.28322825 0
-2.9026301 5.9444456 0.29252407 0
-2.7003675 5.9432807 0.28964683 0
-2.5026424 5.9439378 0.29412496 0
-2.304491 5.9433045 0.29270756 0
-2.0917645 5.9423299 0.3070589 0
-1.8930788 5.9414959 0.30809379 0
-1.7089263 5.9400496 0.31735811 0
-1.5088495 5.9384265 0.30777547 0
-1.3099815 5.9428892 0.31172299 0
-1.1173809 5.9400063 0.31821159 0
-0.91160864 5.9370747 0.31991467 0
-0.70875973 5.9381032 0.3087607 0
-0.50725818 5.936501 0.32143271 0
-0.30888838 5.937068 0.31457096 0
-0.12061574 5.9366236 0.32214266 0
0.10113771 5.9396706 0.31086293 0
0.30704936 5.9387579 0.29712367 0
0.50349474 5.9349117 0.31209749 0
0.70469046 5.9362125 0.30056453 0
0.90857261 5.9341445 0.29099852 0
1.0987401 5.9359674 0.28082547 0
1.2993618 5.9359365 0.28827634 0
1.4963621 5.9344339 0.27619269 0
1.6900369 5.9340138 0.26886863 0
1.8925271 5.9355879 0.28862751 0
2.1021595 5.9350042 0.26903579 0
2.3021176 5.9324641 0.27554828 0
2.4926021 5.9282498 0.27486646 0
2.6822934 5.9302573 0.2855244 0
2.8841128 5.9318027 0.27546027 0
3.0938048 5.9321041 0.27788118 0
3.3103213 5.93331 0.27569202 0
3.5055823 5.9282546 0.26707625 0
3.7014496 5.9232769 0.27991185 0
3.8353028 5.8866467 0.25916427 0
4.0627327 5.9235988 0.32916218 0
4.3169923 5.9231443 0.3078323 0
4.5221572 5.9244504 0.29102528 0
4.7145658 5.901329 0.29596442 0
4.9024787 5.9028397 0.28887919 0
5.097939 5.9003448 0.28123042 0
5.2886934 5.8986669 0.2767823 0
5.5059447 5.8943076 0.2679536 0
5.7055874 5.8974967 0.26073313 0
5.9136233 5.895617 0.28566423 0
6.105835 5.8994431 0.30591762 0
6.2930923 5.90097 0.3106502 0
6.4921575 5.9034433 0.30522206 0
6.7027612 5.9043994 0.28846759 0
6.8993564 5.9050941 0.30189615 0
7.1041832 5.9012661 0.30050516 0
7.3011642 5.9018674 0.30990106 0
7.4976635 5.9055676 0.29845601 0
7.6996012 5.9060369 0.28663656 0
7.8892899 5.9042521 0.28531596 0
8.058774 5.9031873 0.28251782 0
1.5985788 -7.8041005 0.48401159 0
1.8217044 -7.8026056 0.48688239 0
2.0444057 -7.8033476 0.49020129 0
2.7139668 -7.8009515 0.50194263 0
2.9390261 -7.8018637 0.50665414 0
3.1656644 -7.8028798 0.51174158 0
3.3371441 -7.8044453 0.51586628 0
3.5088243 -7.8012342 0.5199132 0
5.6817579 -7.813406 0.58934104 0
5.8895741 -7.8172712 0.59744352 0
6.3565993 -7.8005247 0.52636433 0
6.4364114 -7.8034363 0.41660535 0
7.1723857 -7.8001332 0.44321632 0
-9.6417913 -7.6812701 0.52986085 0
-9.4892302 -7.7177639 0.50177991 0
-9.2754126 -7.7567029 0.49816275 0
-9.1056051 -7.7588158 0.49589443 0
-8.9053783 -7.7554307 0.49410659 0
-8.7167892 -7.7574368 0.49174616 0
-8.4901772 -7.7557011 0.49174678 0
-8.3040924 -7.7574353 0.47404501 0
-8.0967894 -7.7563763 0.48674253 0
-7.8641973 -7.7571907 0.50831455 0
-7.6987023 -7.7573533 0.4909749 0
-7.5076995 -7.7565699 0.48036259 0
-7.2964973 -7.755579 0.46801212 0
-7.0949435 -7.7579193 0.46991158 0
-6.9135065 -7.7539606 0.50474274 0
-6.7061782 -7.7566104 0.49553871 0
-6.5010719 -7.7535787 0.48002276 0
-6.3055639 -7.7514 0.4866702 0
-6.0938916 -7.7515411 0.50296837 0
-5.8939199 -7.7504139 0.50843257 0
-5.6909356 -7.752984 0.48925561 0
-5.4898233 -7.7510877 0.48332149 0
-5.3032446 -7.7526097 0.48527813 0
-5.0990291 -7.7512145 0.48018944 0
-4.8975472 -7.7537346 0.49180076 0
-4.6927934 -7.7533636 0.49741256 0
-4.4943719 -7.7535396 0.49926847 0
-4.2946758 -7.7537432 0.49955511 0
-4.1024933 -7.754406 0.4941723 0
-3.9031951 -7.7539244 0.49656612 0
-3.7027872 -7.7534537 0.49291372 0
-3.4996102 -7.7560096 0.48300916 0
-3.2985187 -7.7552404 0.48357174 0
-3.1026103 -7.7556329 0.48741984 0
-2.9021258 -7.7549481 0.48945707 0
-2.6999774 -7.7558346 0.4876132 0
-2.4980795 -7.7570996 0.48088372 0
-2.2959511 -7.7569175 0.49268952 0
-2.0973301 -7.7578773 0.49552315 0
-1.9062749 -7.7578101 0.49900585 0
-1.7065979 -7.7584147 0.49881974 0
-1.5015222 -7.7575679 0.49004477 0
-1.2991705 -7.7607341 0.4936409 0
-1.0999076 -7.7603765 0.50091743 0
-0.9001531 -7.7618923 0.50420368 0
-0.69752789 -7.7616701 0.50949764 0
-0.50116134 -7.7622223 0.50114506 0
-0.2964502 -7.7628441 0.50413299 0
-0.10024711 -7.7648063 0.50638574 0
0.092492931 -7.7635813 0.49578631 0
0.29819918 -7.7645106 0.50174397 0
0.49760813 -7.7647691 0.50194538 0
0.69891077 -7.7640676 0.50251484 0
0.90419543 -7.7660575 0.5032056 0
1.1036507 -7.7687402 0.49509978 0
1.3063052 -7.7675672 0.49837297 0
1.499714 -7.7676029 0.50336379 0
1.6960431 -7.767931 0.5009982 0
1.8978971 -7.7671151 0.50064135 0
2.0955768 -7.7683883 0.50598705 0
2.2965457 -7.7685709 0.50305378 0
2.5086441 -7.7670579 0.50111288 0
2.695678 -7.7696977 0.49733162 0
2.8917518 -7.7710819 0.49626669 0
3.1080084 -7.7719631 0.49686825 0
3.307852 -7.770927 0.50250685 0
3.5002468 -7.7643785 0.5111239 0
3.6429734 -7.696166 0.49980092 0
3.9001286 -7.7849526 0.51765686 0
4.108047 -7.7768388 0.51919574 0
4.3179269 -7.7841306 0.52361733 0
4.500432 -7.7774477 0.506419 0
4.6906891 -7.7794957 0.51988333 0
4.8913798 -7.7773514 0.51084208 0
5.1043825 -7.7815003 0.5175274 0
5.3071508 -7.786727 0.51995695 0
5.5071344 -7.7890563 0.54178417 0
5.6938982 -7.7877808 0.53077066 0
5.903511 -7.784739 0.51621884 0
6.1010675 -7.781394 0.46885434 0
6.2751136 -7.7843323 0.44697657 0
6.5161152 -7.786211 0.50503016 0
6.7051659 -7.7899065 0.48544657 0
6.8996048 -7.7894897 0.49441701 0
7.0812135 -7.7886429 0.52469236 0
7.3159175 -7.7911777 0.51504362 0
7.5147285 -7.7887645 0.5114361 0
7.7083802 -7.7911406 0.43664169 0
7.8796678 -7.7870851 0.48945984 0
8.0321321 -7.7411575 0.47582942 0
-9.6433191 -7.4989519 0.5232569 0
-9.5072737 -7.5027213 0.49644482 0
3.5938616 -7.4957442 0.51681894 0
3.6419268 -7.4959679 0.49340227 0
8.0405598 -7.5299258 0.46813244 0
-9.6435633 -7.2956758 0.52529836 0
-9.4984322 -7.2962327 0.49432954 0
3.5929537 -7.2752728 0.48757493 0
3.6314125 -7.3013482 0.48982129 0
8.0451097 -7.3148346 0.48349622 0
-9.639143 -7.0946612 0.52263212 0
-9.5074558 -7.092833 0.49444804 0
3.5971441 -7.1438332 0.45959371 0
3.638916 -7.1035571 0.49572596 0
8.0472527 -7.1103859 0.50738436 0
-9.6398878 -6.8964858 0.52362508 0
-9.500906 -6.9019914 0.49536237 0
3.5864496 -6.9585786 0.41027042 0
3.6291041 -6.9026465 0.48353064 0
8.0413246 -6.9030619 0.5387361 0
-9.6428423 -6.7016106 0.5197525 0
-9.5038643 -6.7092466 0.49588218 0
-4.9028039 -6.6870089 0.50335741 0
-4.7444744 -6.6851144 0.47839677 0
3.5984979 -6.6223488 0.52677584 0
3.6284168 -6.708539 0.48357779 0
8.0478716 -6.7201967 0.51185524 0
-9.6434784 -6.4963422 0.51908469 0
-9.4999542 -6.5016847 0.49855337 0
-4.902256 -6.5077691 0.50339305 0
-4.7486348 -6.4990411 0.48429772 0
3.6374183 -6.5032444 0.48806542 0
8.0483294 -6.5022874 0.51158351 0
-9.6411476 -6.2953911 0.52177852 0
-9.5046282 -6.3016524 0.5025124 0
-4.9013519 -6.3111019 0.49057949 0
-4.7479377 -6.2941246 0.48182267 0
3.6282136 -6.2945175 0.49115083 0
8.0514507 -6.2937331 0.49414578 0
-9.6439695 -6.101398 0.49136308 0
-9.5013094 -6.1121097 0.50941724 0
-4.9038448 -6.1058731 0.50110781 0
-4.7476978 -6.0936618 0.48336646 0
3.5915608 -6.0474296 0.45718548 0
3.6440613 -6.1067576 0.49888363 0
8.0509071 -6.0909562 0.49451503 0
-9.6459017 -5.9097042 0.48422247 0
-9.5008125 -5.9020362 0.51557237 0
-4.8983769 -5.8988667 0.48136857 0
-4.7466655 -5.8963246 0.47860187 0
3.5978534 -5.8365936 0.48489857 0
3.6282539 -5.9062567 0.48867366 0
8.055377 -5.8863835 0.46760926 0
-9.6433773 -5.6957088 0.49929008 0
-9.5027514 -5.6980367 0.52399278 0
-4.901185 -5.696743 0.49051803 0
-4.7463493 -5.7010283 0.48705295 0
3.5944223 -5.6917601 0.5511421 0
3.6359615 -5.6948061 0.49046832 0
8.0572605 -5.7096305 0.4966875 0
-9.6445875 -5.4942789 0.50516576 0
-9.5025473 -5.5168076 0.5322336 0
-4.892786 -5.4839439 0.51161474 0
-4.7473688 -5.5036879 0.48742336 0
3.5948954 -5.5341978 0.57736212 0
3.6306293 -5.5005074 0.49940109 0
8.0533056 -5.4857535 0.50169194 0
-9.6437531 -5.3065743 0.51872224 0
-9.4999523 -5.3031507 0.48398307 0
-4.9069786 -5.2857361 0.53908676 0
-4.7454009 -5.3000159 0.48110664 0
3.5935564 -5.378572 0.57262856 0
3.6342449 -5.3008084 0.49090043 0
8.0559788 -5.2805743 0.55331457 0
-9.6439867 -5.0996056 0.52305681 0
-9.5032339 -5.0975809 0.48237506 0
-4.9054146 -5.0919309 0.45909452 0
-4.744153 -5.1005726 0.47920483 0
3.5859568 -5.111218 0.54626501 0
3.6333296 -5.0988865 0.49894333 0
8.0564327 -5.0836859 0.54304147 0
-9.6365194 -4.8885741 0.5068236 0
-9.4964008 -4.9106035 0.49130726 0
-4.8935976 -4.8872356 0.48626971 0
-4.7428517 -4.8973045 0.48257717 0
3.5933487 -4.8588371 0.51117688 0
3.6326654 -4.893847 0.48756486 0
8.0550919 -4.9092841 0.54987258 0
